602

570 0.053839823154 0.078723884581 0.0113 55.40244085
472 0.155209766987 0.991858891888 0.0108 0.00000000
24 0.359385868939 0.035604715436 0.0136 0.00000000
133 0.013616446105 1.159187151241 0.0104 0.00000000
112 0.158437355142 0.054441530135 0.0105 0.00000000
317 0.087292220305 1.061757541137 0.0148 0.00000000
50 0.041366455466 0.518642819515 0.0112 0.00000000
571 0.386900182345 0.452064786183 0.0125 0.00000000
497 0.372783078802 1.402882852600 0.0114 0.00000000
473 0.315191525795 0.590302839636 0.0113 0.00000000
25 0.122149766562 0.232856477328 0.0105 0.00000000
134 0.294902451747 1.152220928858 0.0130 0.00000000
506 0.072529077767 1.291797496432 0.0103 0.00000000
51 0.248198102125 1.418592393082 0.0104 0.00000000
113 0.121245926071 1.333560671892 0.0117 0.00000000
572 0.343738148677 0.053738744057 0.0102 0.00000000
498 0.327460921768 0.037843632642 0.0125 48.99931043
474 0.385971025278 1.379808956393 0.0105 0.00000000
26 0.201341086300 1.384567575499 0.0131 0.00000000
135 0.136915734689 0.945332552058 0.0135 0.00000000
507 0.336164871149 0.076099368193 0.0118 0.00000000
52 0.116975904650 1.155495257907 0.0130 0.00000000
114 0.158129113851 1.344028938387 0.0102 0.00000000
499 0.186058712693 0.012826989005 0.0128 0.00000000
573 0.253695466701 0.981025799664 0.0107 0.00000000
27 0.168769149677 0.960875155410 0.0124 0.00000000
475 0.252444745013 1.246830743451 0.0111 0.00000000
136 0.167100451552 0.607610651844 0.0109 0.00000000
53 0.055399509801 0.889453443897 0.0140 0.00000000
508 0.365364606954 0.079692549097 0.0107 451.37560452
115 0.131467736937 0.186435487608 0.0149 0.00000000
574 0.136660169271 0.382043397216 0.0102 0.00000000
500 0.113917559889 0.073166609001 0.0102 41.24883809
476 0.272676993524 1.263198392466 0.0121 0.00000000
28 0.256262681118 0.498222407674 0.0107 0.00000000
137 0.148289500213 0.661900625726 0.0139 0.00000000
54 0.111152000120 0.683662965476 0.0117 0.00000000
116 0.179133359661 0.851230347418 0.0142 0.00000000
509 0.015732153619 0.466846785449 0.0108 0.00000000
501 0.213019506099 0.772015206016 0.0101 0.00000000
575 0.388512453885 0.509335906556 0.0111 0.00000000
477 0.198761275566 0.037434850089 0.0148 0.00000000
29 0.332952221126 0.121020607231 0.0125 181.89545093
138 0.198186725517 0.546348617241 0.0125 0.00000000
55 0.189370510351 0.245574261163 0.0122 0.00000000
510 0.165029326934 0.349453187667 0.0119 0.00000000
117 0.120984309498 0.829005586567 0.0149 0.00000000
576 0.121459363154 0.298525361870 0.0104 0.00000000
502 0.046815236681 0.193505487608 0.0133 0.00000000
30 0.251124129655 0.864689536160 0.0107 0.00000000
478 0.244169577603 0.056351609630 0.0133 0.00000000
139 0.322403254444 0.978681217877 0.0120 0.00000000
56 0.055747374302 1.272633177964 0.0128 0.00000000
511 0.075324993355 1.194261392525 0.0104 0.00000000
118 0.180082756192 0.319289522243 0.0146 0.00000000
503 0.266029020312 0.931801627392 0.0100 0.00000000
577 0.359358605574 0.288384657993 0.0110 0.00000000
31 0.213087813258 1.128836203763 0.0134 0.00000000
479 0.038425634977 0.585461956809 0.0132 0.00000000
140 0.360472334956 0.462453448992 0.0146 0.00000000
57 0.380793672493 0.373807618779 0.0130 0.00000000
512 0.021571130988 1.129974760887 0.0124 0.00000000
119 0.363328925739 1.247981186078 0.0109 0.00000000
578 0.308387852376 0.014867155441 0.0142 0.89877657
504 0.202919148022 0.201593535347 0.0110 0.00000000
32 0.066169646773 0.244095387587 0.0112 0.00000000
480 0.262865769300 0.010201581279 0.0102 1.56008543
58 0.179342220561 1.097425288099 0.0112 0.00000000
513 0.313964172212 0.297361211579 0.0117 0.00000000
141 0.050130697372 0.029511965252 0.0123 1.96883832
120 0.242414043885 0.960491485220 0.0121 0.00000000
579 0.342960333782 1.026989521291 0.0131 0.00000000
505 0.262530300813 1.357458781069 0.0101 0.00000000
481 0.149748672464 0.828862080460 0.0138 0.00000000
33 0.213252701586 0.013314978739 0.0133 1.19420365
514 0.248461805362 1.176798455484 0.0100 0.00000000
59 0.219844755898 0.718801068783 0.0116 0.00000000
121 0.293482883390 0.371623414808 0.0145 0.00000000
142 0.200563275396 1.417555115051 0.0108 0.00000000
580 0.032923982769 0.071034063080 0.0110 129.49173053
450 0.362836177078 0.568369179101 0.0115 0.00000000
482 0.057474333585 0.930634710539 0.0123 0.00000000
34 0.079393874034 1.025638517039 0.0107 0.00000000
515 0.153509238977 0.075615358558 0.0112 0.00000000
60 0.289132426118 1.352365090848 0.0134 0.00000000
122 0.060969078769 0.598967402704 0.0104 0.00000000
143 0.300160147148 1.320062655310 0.0121 0.00000000
451 0.205968224743 0.373554239203 0.0125 0.00000000
0 0.336111025788 0.013398860803 0.0134 44.86771452
483 0.052245908283 0.679256699599 0.0148 0.00000000
35 0.026018594472 0.701029787021 0.0127 0.00000000
516 0.120279790532 0.752015873613 0.0129 0.00000000
61 0.369708596435 1.181168719943 0.0102 0.00000000
123 0.030649102624 1.268010893281 0.0126 0.00000000
144 0.221699368099 0.640436749905 0.0101 0.00000000
145 0.299952120632 1.183318903789 0.0138 0.00000000
146 0.163135792313 1.404543779942 0.0136 0.00000000
147 0.156675179815 1.289892235355 0.0121 0.00000000
148 0.320285598835 0.060007650973 0.0108 44.80468608
149 0.170183046558 0.198977470635 0.0145 0.00000000
452 0.226289989693 0.866502236177 0.0126 0.00000000
1 0.367161506425 0.426297319808 0.0134 0.00000000
517 0.311090381631 0.628852742686 0.0114 0.00000000
453 0.094030475795 0.379789152316 0.0109 0.00000000
62 0.175042017950 0.755051693737 0.0110 0.00000000
2 0.037705069682 0.092981641595 0.0102 4.04514357
454 0.309310413861 1.085688253537 0.0142 0.00000000
518 0.339522946270 0.612381894199 0.0128 0.00000000
3 0.282263503947 0.988208618484 0.0103 0.00000000
63 0.286624281080 0.950670965429 0.0102 0.00000000
455 0.218611889515 0.075947583552 0.0111 0.00000000
519 0.039415626149 1.419310294389 0.0107 0.00000000
4 0.374968698510 0.315420654596 0.0127 0.00000000
64 0.258362486071 0.474614660602 0.0115 0.00000000
36 0.101322400046 0.287194216364 0.0115 0.00000000
520 0.065264499318 0.011330296155 0.0113 14.96191095
456 0.015215446425 0.488692611629 0.0102 0.00000000
5 0.350060842887 0.177555484579 0.0128 0.00000000
65 0.100480392484 0.477917093294 0.0145 0.00000000
484 0.245662731016 0.830117549308 0.0149 0.00000000
6 0.028216403765 0.831246958513 0.0148 0.00000000
457 0.185696469875 1.026802234416 0.0103 0.00000000
521 0.085487814610 0.097355334721 0.0112 23.87034599
66 0.071795852397 0.644334097524 0.0148 0.00000000
124 0.065604289894 0.854873329002 0.0122 0.00000000
7 0.049823729006 1.393195720087 0.0136 0.00000000
458 0.238499780644 0.176595434607 0.0149 0.00000000
522 0.386897859510 1.349748576886 0.0128 0.00000000
67 0.324435390877 1.257153845248 0.0125 0.00000000
485 0.273739356579 1.308718396615 0.0103 0.00000000
125 0.134483406375 0.783007272969 0.0135 0.00000000
8 0.066286485747 0.513890365997 0.0122 0.00000000
459 0.319999035328 0.950003312964 0.0102 0.00000000
523 0.083964480349 0.261657495926 0.0118 0.00000000
68 0.202458848150 0.967389213038 0.0126 0.00000000
126 0.125439031976 0.540639860808 0.0129 0.00000000
486 0.203216771004 0.397875308410 0.0120 0.00000000
9 0.245923849689 0.339290818903 0.0139 0.00000000
460 0.386643702039 1.054525560262 0.0125 0.00000000
524 0.037196364977 0.049205808013 0.0112 0.00000000
69 0.044970305436 0.221750422084 0.0144 0.00000000
127 0.164421484527 0.395791562730 0.0147 0.00000000
461 0.338906752453 0.201221614447 0.0126 0.00000000
10 0.034338591889 0.011533676430 0.0115 543.62182651
70 0.131662969442 0.060031231110 0.0119 0.00000000
128 0.142006705630 0.163381347727 0.0101 0.00000000
71 0.366293533663 0.614994024449 0.0110 0.00000000
129 0.308128268825 0.254677463709 0.0112 0.00000000
462 0.318125817925 0.862660724695 0.0117 0.00000000
11 0.374955265824 1.029485866778 0.0117 0.00000000
72 0.342186883622 0.833978304173 0.0109 0.00000000
130 0.098616009754 0.160510963372 0.0111 0.00000000
12 0.287148181071 0.446776663260 0.0133 0.00000000
463 0.196986928742 0.166861015685 0.0142 0.00000000
73 0.330796279851 0.432078412523 0.0120 0.00000000
74 0.013120575687 1.017944603695 0.0122 0.00000000
464 0.010832024570 1.046436809513 0.0103 0.00000000
13 0.027241533818 0.390549838846 0.0109 0.00000000
14 0.217028876432 0.841827700859 0.0116 0.00000000
465 0.076802671042 0.913909583649 0.0125 0.00000000
15 0.260903421247 0.084266637260 0.0116 0.00000000
466 0.380264097163 0.923426467907 0.0105 0.00000000
16 0.017188774669 0.181264549482 0.0146 0.00000000
467 0.065299956896 1.251353494906 0.0103 0.00000000
17 0.191410818628 0.782811297555 0.0134 0.00000000
602

-2 0.0 0.0 0.00000001 0.0 0.0
-1 0.400000 1.500000 0.00000001 0.0 0.0
393 0.386166735878 0.947732900300 0.0127 0.00000000
394 0.013923047377 1.278933768581 0.0110 0.00000000
395 0.190936050146 0.324016296682 0.0123 0.00000000
396 0.174071868481 0.117404164373 0.0133 0.00000000
397 0.259309088117 0.699508167152 0.0118 0.00000000
398 0.350308861504 1.279639798838 0.0136 0.00000000
399 0.020593719275 1.367043804915 0.0135 0.00000000
400 0.084734707748 1.117504029392 0.0103 0.00000000
401 0.059143104490 0.318323217088 0.0107 0.00000000
402 0.295028935617 0.993977793796 0.0124 0.00000000
403 0.228925558542 0.097979886284 0.0107 0.00000000
404 0.049554870420 0.393042363017 0.0109 0.00000000
405 0.074643623207 1.381404740046 0.0115 0.00000000
406 0.048472766852 0.464634205601 0.0114 0.00000000
407 0.298049754517 0.064531248331 0.0117 2.07542786
408 0.283523727627 0.010657400574 0.0107 7.92800939
543 0.206351077734 0.550250039231 0.0112 0.00000000
409 0.037157321950 1.283308853950 0.0110 0.00000000
337 0.178623427447 1.183360630374 0.0146 0.00000000
487 0.095979795538 0.030670101083 0.0118 43.97990168
187 0.369411633824 1.193749670641 0.0129 0.00000000
410 0.310338490129 1.212941005767 0.0125 0.00000000
338 0.236096688818 0.287085933672 0.0139 0.00000000
544 0.223523744901 0.959192199140 0.0112 0.00000000
488 0.231003665206 1.336976465637 0.0141 0.00000000
188 0.368114594205 0.233591197200 0.0120 0.00000000
411 0.199649402761 1.258284551410 0.0128 0.00000000
339 0.064281915667 0.936111847731 0.0120 0.00000000
489 0.275691281719 0.947841436881 0.0101 0.00000000
545 0.089985555063 1.397048838417 0.0104 0.00000000
468 0.281879929242 0.033582343592 0.0123 0.00000000
431 0.144197030359 1.132698387651 0.0110 0.00000000
189 0.231917637423 1.186704223592 0.0113 0.00000000
490 0.337991790988 0.282455131804 0.0102 0.00000000
340 0.357603635657 1.105151864217 0.0109 0.00000000
375 0.090669540518 1.221198239386 0.0108 0.00000000
546 0.316736110884 1.319726446685 0.0138 0.00000000
432 0.200514529343 0.103096627812 0.0131 0.00000000
190 0.223236452856 1.219268526564 0.0148 0.00000000
469 0.274733939588 0.162403236814 0.0127 0.00000000
491 0.240781454313 0.011739907173 0.0117 1.08601675
376 0.036334627959 0.138691685020 0.0102 0.00000000
341 0.041611331692 0.631928559887 0.0124 0.00000000
547 0.281845474523 1.058630850158 0.0118 0.00000000
433 0.243243403296 0.871832728682 0.0101 0.00000000
191 0.064972860780 0.050630696325 0.0124 10.19891208
492 0.220499255989 0.058863312207 0.0107 11.94775925
470 0.236480070327 1.362572352144 0.0106 0.00000000
377 0.212603534558 0.792230207977 0.0146 0.00000000
342 0.014440089225 0.628571465618 0.0135 0.00000000
434 0.158922205743 1.032005554313 0.0141 0.00000000
548 0.348402945162 0.767625232183 0.0107 0.00000000
493 0.013378821615 0.330231651010 0.0107 0.00000000
192 0.086180440384 1.318122266011 0.0150 0.00000000
471 0.386911633884 0.040774026407 0.0112 1.26832543
378 0.091683763343 0.728221764009 0.0144 0.00000000
343 0.283900226379 0.841676193810 0.0145 0.00000000
435 0.065636801033 1.080343536935 0.0131 0.00000000
549 0.170968277813 0.268964263653 0.0102 0.00000000
494 0.118034870404 0.431463838734 0.0103 0.00000000
193 0.236192191603 0.915774273515 0.0115 0.00000000
472 0.155209766987 0.971019723451 0.0108 0.00000000
379 0.312372352755 1.356975531459 0.0116 0.00000000
344 0.265662762381 0.336697194604 0.0119 0.00000000
550 0.261918393764 0.424388167329 0.0112 0.00000000
495 0.137103733489 0.958097397926 0.0101 0.00000000
194 0.242686498585 0.633047171914 0.0137 0.00000000
436 0.321070726698 0.383020434310 0.0138 0.00000000
473 0.315191525795 0.569463673225 0.0113 0.00000000
380 0.130020617822 0.622802768064 0.0102 0.00000000
496 0.388522227828 0.462647931017 0.0113 0.00000000
345 0.311857695846 0.771296334645 0.0143 0.00000000
551 0.141604871789 0.035909559034 0.0130 168.03030041
195 0.386220473401 1.058143985664 0.0106 0.00000000
437 0.119786829852 0.880192915929 0.0106 0.00000000
474 0.385971025278 1.358969787669 0.0105 0.00000000
381 0.349985457086 1.394395326888 0.0146 0.00000000
497 0.372783078802 1.382043683876 0.0114 0.00000000
346 0.332700775776 1.098755661280 0.0101 0.00000000
552 0.379163523906 0.141517982637 0.0106 0.00000000
196 0.271929600532 1.179892001030 0.0137 0.00000000
438 0.093088003533 0.808579520690 0.0102 0.00000000
475 0.252444745013 1.225991574727 0.0111 0.00000000
382 0.243221734226 1.092139382056 0.0101 0.00000000
498 0.331831097006 0.039117021132 0.0125 49.45446261
347 0.040857340654 0.343219770651 0.0132 0.00000000
553 0.246782684326 0.667563958107 0.0110 0.00000000
581 0.257289163423 1.018852367924 0.0107 0.00000000
554 0.308404307500 1.109012308466 0.0104 0.00000000
383 0.199513476072 0.724637580142 0.0126 0.00000000
555 0.187113155226 0.803228722177 0.0118 0.00000000
582 0.266057315404 0.621706737898 0.0111 0.00000000
556 0.283513267317 1.262987627689 0.0104 0.00000000
348 0.101428166809 1.017505822042 0.0112 0.00000000
384 0.304258621839 0.307171395027 0.0117 0.00000000
583 0.361465279620 1.130944644444 0.0105 0.00000000
557 0.081260970182 0.114111095060 0.0132 62.72896747
584 0.255609502392 0.136286721131 0.0123 0.00000000
558 0.225785651742 1.383465901479 0.0117 0.00000000
439 0.027258008314 1.162878266011 0.0114 0.00000000
385 0.043265220859 0.846836196812 0.0109 0.00000000
349 0.032122399061 1.082679637825 0.0115 0.00000000
585 0.314466516240 0.082343174209 0.0126 0.00000000
559 0.338575330520 1.257363542237 0.0101 0.00000000
440 0.180857803298 0.660009651322 0.0102 0.00000000
350 0.238963062204 0.714358507921 0.0133 0.00000000
386 0.095144816268 0.866263607856 0.0139 0.00000000
586 0.149396019528 0.402115468796 0.0126 0.00000000
560 0.326442064535 0.486883966600 0.0100 0.00000000
351 0.340188292705 0.470843365242 0.0111 0.00000000
441 0.106769290826 0.091163242478 0.0112 0.01009236
387 0.032091216905 1.218374662296 0.0120 0.00000000
587 0.279180771731 0.463539636580 0.0114 0.00000000
561 0.287922071395 0.609361145020 0.0108 0.00000000
352 0.253410796165 1.303416669020 0.0120 0.00000000
442 0.341248026453 0.228794970935 0.0134 0.00000000
588 0.043108908448 1.308408998165 0.0101 0.00000000
388 0.042472480484 1.333502787544 0.0131 0.00000000
353 0.021670336634 0.031024955927 0.0127 0.00000000
525 0.320988700607 0.540191830259 0.0112 0.00000000
443 0.226922656384 0.430714050121 0.0107 0.00000000
354 0.382556766514 0.575762068257 0.0126 0.00000000
589 0.018017652293 0.894727136833 0.0103 0.00000000
389 0.081550948028 0.918625295179 0.0120 0.00000000
444 0.129240446079 0.692821117346 0.0103 0.00000000
526 0.152026262842 0.477307098564 0.0108 0.00000000
355 0.241107247708 0.526590315920 0.0112 0.00000000
390 0.149710123976 1.169387982653 0.0140 0.00000000
356 0.194583073361 0.268229234823 0.0112 0.00000000
590 0.153000150832 0.838074265719 0.0128 0.00000000
527 0.327803827342 1.295210514735 0.0118 0.00000000
445 0.024726220286 0.118630940692 0.0115 0.00000000
357 0.306418355855 0.818071958214 0.0107 0.00000000
391 0.141190751460 1.347933680770 0.0115 0.00000000
591 0.383316696441 0.264798445181 0.0116 0.00000000
446 0.104453550129 0.630383970099 0.0139 0.00000000
528 0.122409687833 1.071744218920 0.0100 0.00000000
392 0.380168499562 0.925775259761 0.0100 0.00000000
358 0.196858629094 1.307415104010 0.0130 0.00000000
592 0.196308123447 0.701352818027 0.0106 0.00000000
447 0.369336181579 0.654916091712 0.0108 0.00000000
529 0.105091611841 0.010404280027 0.0104 0.00000000
359 0.100849259870 1.195562637899 0.0129 0.00000000
593 0.264401274459 1.127277690602 0.0135 0.00000000
93 0.052009789654 1.176346806324 0.0103 0.00000000
530 0.081447877530 0.423433808662 0.0117 0.00000000
448 0.215843653595 0.574402362225 0.0125 0.00000000
360 0.075218285992 0.182628708731 0.0124 0.00000000
94 0.236580838081 0.742064386062 0.0142 0.00000000
594 0.180299257552 0.249786104149 0.0107 0.00000000
361 0.095132519450 1.366366387089 0.0119 0.00000000
531 0.298996897478 1.240424098820 0.0113 0.00000000
449 0.303826198466 0.104346076259 0.0119 39.38348194
362 0.019654092607 1.191579718328 0.0123 0.00000000
595 0.232878798310 0.554859636636 0.0119 0.00000000
95 0.377345532716 1.303272455184 0.0122 0.00000000
532 0.310684338658 0.155333097975 0.0108 0.00000000
363 0.377131406291 1.088399638973 0.0104 0.00000000
412 0.349425189097 0.850493126600 0.0104 0.00000000
596 0.162751495426 0.759352997494 0.0106 0.00000000
96 0.268968272928 0.495822186136 0.0116 0.00000000
533 0.166207770146 0.433884799165 0.0145 0.00000000
364 0.177281363736 0.347520461186 0.0104 0.00000000
413 0.276034353912 0.755081421959 0.0116 0.00000000
97 0.176958971134 0.401862932619 0.0132 0.00000000
597 0.217527799946 0.225939901996 0.0116 0.00000000
534 0.096364299086 1.147770488871 0.0109 0.00000000
414 0.173300577184 0.485719752204 0.0102 0.00000000
499 0.189677126078 0.012790284666 0.0128 1.50827670
365 0.133822928071 0.083344257262 0.0123 41.83710599
98 0.056018373124 0.435011251391 0.0147 0.00000000
598 0.010567499468 0.010553064641 0.0105 0.00000000
415 0.136059994418 1.008611589539 0.0111 0.00000000
535 0.359990278925 0.010959385501 0.0110 239.44222644
197 0.037136942674 0.947019138503 0.0144 0.00000000
366 0.106799594917 1.281159255392 0.0115 0.00000000
500 0.114359982065 0.071102391667 0.0102 0.00000000
599 0.146645320656 0.193468960604 0.0116 0.00000000
536 0.212006221204 1.279350896365 0.0106 0.00000000
416 0.140860610891 1.243489671074 0.0131 0.00000000
99 0.153158541524 0.676901148921 0.0143 0.00000000
367 0.124374322167 0.104448349088 0.0108 14.81529529
501 0.213019506099 0.751176039606 0.0101 0.00000000
562 0.289150835268 0.381028342366 0.0118 0.00000000
537 0.251606241310 1.040902552222 0.0100 0.00000000
417 0.248547684312 0.998530664869 0.0111 0.00000000
198 0.360099477670 0.506864237147 0.0106 0.00000000
100 0.385413122855 0.091564404472 0.0146 17.68443890
502 0.046815236681 0.172666320397 0.0133 0.00000000
368 0.221370078403 1.037559129338 0.0132 0.00000000
563 0.040208661302 1.129861296812 0.0148 0.00000000
538 0.254634129256 0.563649632053 0.0110 0.00000000
418 0.160517905850 0.879043970689 0.0127 0.00000000
199 0.269843335997 0.674575740591 0.0125 0.00000000
503 0.266029020312 0.910962460981 0.0100 0.00000000
101 0.178928658921 1.146635258391 0.0148 0.00000000
369 0.345635032215 0.919353060307 0.0139 0.00000000
564 0.118299782963 0.570401278729 0.0109 0.00000000
539 0.381455183513 0.810207786583 0.0111 0.00000000
419 0.387452843995 0.702485747621 0.0117 0.00000000
504 0.202919148022 0.180754368068 0.0110 0.00000000
200 0.047552189891 1.028640786306 0.0118 0.00000000
102 0.351726065663 0.100308169860 0.0147 248.56697669
370 0.020296025343 0.301445147773 0.0115 0.00000000
565 0.322847963764 0.797239035572 0.0132 0.00000000
505 0.262530300813 1.336619612345 0.0101 0.00000000
420 0.293990769005 0.583088334702 0.0119 0.00000000
201 0.302403425139 0.634213981987 0.0104 0.00000000
540 0.218387483748 1.068433739418 0.0148 0.00000000
103 0.131917175977 1.285657724690 0.0115 0.00000000
566 0.155170205731 0.907997987185 0.0109 0.00000000
371 0.127305822056 0.838054856615 0.0110 0.00000000
506 0.072529077767 1.270958327708 0.0103 0.00000000
421 0.263866785477 0.102472139419 0.0102 0.00000000
202 0.239460461892 0.409955818142 0.0112 0.00000000
541 0.100333436954 0.777680796747 0.0100 0.00000000
567 0.097217123848 0.516730098449 0.0144 0.00000000
104 0.119175974679 0.373407594591 0.0105 0.00000000
507 0.338363200598 0.077354877487 0.0118 0.00000000
372 0.101238686195 0.199599367632 0.0118 0.00000000
422 0.386008745668 1.227001332134 0.0111 0.00000000
203 0.122807750825 1.096682981590 0.0137 0.00000000
542 0.073618323960 0.029351685330 0.0106 46.27896499
508 0.364031713242 0.078132354690 0.0107 300.60115657
568 0.116256207927 0.247938188614 0.0110 0.00000000
373 0.102579419991 0.546981243630 0.0113 0.00000000
423 0.093586939366 0.486622492923 0.0109 0.00000000
105 0.375337153868 0.730652013183 0.0112 0.00000000
204 0.364074864318 0.964052415540 0.0112 0.00000000
509 0.015732153619 0.446007618655 0.0108 0.00000000
450 0.362836177078 0.547530012691 0.0115 0.00000000
569 0.386777707442 0.535501498024 0.0100 0.00000000
374 0.387791365829 0.064306437350 0.0122 81.39867164
424 0.376478758562 0.623940986149 0.0122 0.00000000
106 0.060698880826 0.733904331412 0.0110 0.00000000
205 0.359132641795 1.360391871415 0.0117 0.00000000
510 0.165029326934 0.328614020100 0.0119 0.00000000
451 0.205968224743 0.352715071636 0.0125 0.00000000
570 0.053391078612 0.073496198002 0.0113 10.82641870
318 0.027467552799 0.874461313224 0.0111 0.00000000
425 0.123270946043 0.473239098120 0.0132 0.00000000
107 0.265056802689 0.248473947635 0.0143 0.00000000
511 0.075324993355 1.173422223801 0.0104 0.00000000
206 0.282016635750 0.130122696601 0.0135 0.00000000
207 0.017156374875 0.720352191076 0.0101 0.00000000
208 0.111249897920 0.049036633800 0.0121 53.82825044
209 0.105072403957 0.594212194986 0.0130 0.00000000
210 0.153410898553 1.069402859195 0.0150 0.00000000
211 0.189417944255 1.338206781367 0.0103 0.00000000
212 0.154681764418 0.244107696154 0.0141 0.00000000
213 0.372546261879 0.867259837454 0.0125 0.00000000
214 0.217592943019 1.013459947875 0.0101 0.00000000
215 0.039712854468 0.709902208887 0.0121 0.00000000
216 0.106078265594 0.117640504615 0.0115 0.00000000
217 0.198423522940 0.594119190914 0.0117 0.00000000
218 0.313449094057 0.439443172151 0.0133 0.00000000
219 0.177391576459 0.036828450206 0.0114 0.00000000
220 0.140747068834 0.118677211156 0.0108 0.00000000
221 0.132089271555 0.862837081237 0.0103 0.00000000
222 0.083739623340 0.010595032056 0.0106 1.50215158
223 0.385325224343 0.014937859832 0.0147 29.30623531
224 0.094907752038 1.084094651646 0.0128 0.00000000
168 0.278385039010 0.546785218858 0.0145 0.00000000
169 0.199763947591 0.496649856899 0.0127 0.00000000
170 0.282368694402 1.111556093722 0.0101 0.00000000
171 0.124331514742 0.979905160174 0.0140 0.00000000
172 0.293723547336 0.520154077649 0.0115 0.00000000
173 0.329356020190 0.307859520541 0.0129 0.00000000
174 0.339331304735 1.032832276615 0.0129 0.00000000
175 0.181665451308 0.083268653593 0.0141 0.00000000
176 0.306888313201 0.905979536030 0.0130 0.00000000
177 0.018444901516 1.314615345398 0.0123 0.00000000
178 0.142841341047 0.218240680043 0.0103 0.00000000
179 0.344282795563 1.077206628379 0.0110 0.00000000
180 0.080345206295 0.340420792820 0.0111 0.00000000
181 0.274407743205 0.399581812243 0.0115 0.00000000
182 0.236555709162 0.595955166991 0.0150 0.00000000
183 0.074619753939 0.070885785748 0.0101 37.34011286
184 0.050192685560 1.199542661622 0.0112 0.00000000
185 0.172369448753 0.784403768831 0.0107 0.00000000
186 0.160314426520 1.000177461354 0.0118 0.00000000
150 0.100639868118 0.902523964581 0.0126 0.00000000
151 0.170451222448 1.293307574574 0.0121 0.00000000
152 0.250587433013 1.065099129852 0.0142 0.00000000
153 0.017563557828 0.413614125533 0.0148 0.00000000
154 0.357352733057 0.941477516015 0.0110 0.00000000
155 0.203142256048 0.673016569341 0.0145 0.00000000
156 0.014376556921 1.341303412478 0.0106 0.00000000
157 0.255804855464 0.032453216247 0.0128 0.00000000
158 0.180117137955 0.865018198126 0.0107 0.00000000
159 0.382045750747 0.675458556059 0.0102 0.00000000
160 0.214487649164 0.307900998354 0.0122 0.00000000
161 0.345941549611 0.366466517951 0.0141 0.00000000
162 0.270513940318 0.189821125429 0.0138 0.00000000
163 0.029565287581 0.911792331564 0.0101 0.00000000
164 0.273848738260 0.723393598030 0.0101 0.00000000
165 0.139881356313 0.424806280215 0.0115 0.00000000
166 0.189181658291 0.455691167525 0.0145 0.00000000
167 0.298338168953 0.875541493590 0.0110 0.00000000
262 0.177408257033 1.112543276293 0.0107 0.00000000
263 0.275051725786 0.791809981946 0.0101 0.00000000
264 0.146079710635 0.453683174039 0.0105 0.00000000
265 0.147539897879 0.551921729181 0.0137 0.00000000
266 0.199409828249 0.064667184817 0.0112 52.75975989
267 0.075438312636 0.550939149950 0.0132 0.00000000
268 0.374145559405 0.117061466578 0.0133 45.41541306
269 0.270661096542 0.647292078788 0.0144 0.00000000
270 0.067235152901 0.146449518856 0.0115 0.00000000
271 0.211765741811 0.405553838696 0.0123 0.00000000
272 0.310111584594 0.666597881331 0.0106 0.00000000
273 0.246540197541 0.114473806663 0.0107 0.00000000
274 0.342923815540 0.676521758327 0.0142 0.00000000
275 0.168574299467 0.525935116890 0.0149 0.00000000
276 0.141881820303 0.721324531714 0.0108 0.00000000
277 0.335435176610 1.149620790272 0.0120 0.00000000
278 0.054214237710 0.107419595176 0.0145 0.00000000
279 0.321411414614 0.347120294043 0.0120 0.00000000
280 0.137428024443 0.299925947034 0.0110 0.00000000
281 0.162083056687 0.015186223762 0.0149 2.65641512
282 0.296348101875 0.739673886113 0.0123 0.00000000
283 0.312091541330 1.268266569866 0.0126 0.00000000
284 0.327552935256 0.646737667045 0.0143 0.00000000
285 0.373663699351 1.258876757725 0.0142 0.00000000
286 0.025406667696 0.223155923844 0.0140 0.00000000
287 0.303269164292 0.491637396230 0.0114 0.00000000
288 0.012800375124 0.100183129272 0.0104 0.00000000
289 0.156877272983 1.103897825707 0.0107 0.00000000
290 0.099583212499 0.947572938689 0.0112 0.00000000
291 0.083074255548 0.664909365118 0.0101 0.00000000
292 0.081117880383 1.248507867489 0.0126 0.00000000
293 0.334393385458 0.133794224351 0.0108 0.00000000
294 0.341606257407 0.882124704506 0.0118 0.00000000
295 0.061321525431 1.152736983631 0.0121 0.00000000
296 0.366431000011 0.477998653584 0.0122 0.00000000
297 0.135523709795 0.011850932202 0.0119 249.84775678
298 0.358704240967 0.198717829501 0.0123 0.00000000
299 0.311726423774 0.709926669835 0.0112 0.00000000
243 0.236104952856 0.078147133656 0.0102 32.75286548
244 0.227602937804 0.890629888813 0.0105 0.00000000
245 0.020331583901 0.847170731582 0.0113 0.00000000
246 0.338730185354 1.191617492662 0.0148 0.00000000
247 0.213280689511 1.149919643566 0.0124 0.00000000
248 0.194548860702 0.424827309314 0.0130 0.00000000
249 0.094146363736 0.063997046203 0.0107 43.49308561
250 0.323312363842 1.386457029782 0.0123 0.00000000
251 0.268756319392 0.301149621906 0.0134 0.00000000
252 0.073466863693 0.264635411937 0.0103 0.00000000
253 0.286456524435 0.213649670405 0.0115 0.00000000
254 0.116131487147 1.253644666149 0.0127 0.00000000
255 0.065877674833 0.368196881805 0.0132 0.00000000
256 0.039595955341 0.743518702539 0.0107 0.00000000
257 0.350684778159 0.703767649811 0.0133 0.00000000
258 0.066883861607 1.300943603696 0.0107 0.00000000
259 0.103798349037 0.335527302256 0.0112 0.00000000
260 0.204954588230 0.642571272860 0.0129 0.00000000
261 0.279910040431 1.032415020464 0.0124 0.00000000
225 0.176015634640 0.630976783331 0.0124 0.00000000
226 0.283595006908 0.086812512389 0.0149 55.81013257
227 0.381040669893 0.839193329075 0.0135 0.00000000
228 0.366529827304 0.057511119576 0.0101 324.52863098
229 0.204125981771 0.860024040211 0.0134 0.00000000
230 0.020143940631 0.765198276665 0.0146 0.00000000
231 0.190950990099 0.890945197892 0.0143 0.00000000
232 0.188098868083 1.036971452212 0.0145 0.00000000
233 0.223260560081 0.203920507532 0.0101 0.00000000
234 0.084325010856 0.578787252581 0.0109 0.00000000
235 0.010422132582 0.079469687554 0.0104 33.19620951
236 0.306445602428 0.041395695492 0.0130 17.13682406
237 0.288993411259 0.262175508363 0.0114 0.00000000
238 0.123287217319 1.391849116857 0.0111 0.00000000
239 0.260285998879 1.268309034628 0.0111 0.00000000
240 0.309362849247 0.466514691567 0.0138 0.00000000
241 0.272212421405 0.058913239894 0.0148 0.00000000
242 0.011718786380 0.579379449181 0.0107 0.00000000
37 0.119866319509 1.216249671548 0.0122 0.00000000
38 0.090997380488 0.840124701798 0.0123 0.00000000
39 0.330912304982 0.512507044747 0.0131 0.00000000
40 0.282014374687 1.211421400333 0.0146 0.00000000
41 0.274001767606 1.379719219546 0.0122 0.00000000
42 0.250260644753 0.368034738534 0.0149 0.00000000
43 0.339423025102 0.555753924886 0.0129 0.00000000
44 0.315705897285 1.007912161792 0.0110 0.00000000
45 0.227701016516 0.982820620378 0.0110 0.00000000
46 0.337348992966 1.122786448737 0.0136 0.00000000
47 0.308419493295 0.128085130111 0.0123 67.73804145
48 0.165751059071 0.708017156475 0.0109 0.00000000
49 0.224463301875 1.301565741583 0.0135 0.00000000
50 0.041366455466 0.497803653104 0.0112 0.00000000
51 0.248198102125 1.397753224358 0.0104 0.00000000
52 0.116975904650 1.134656089183 0.0130 0.00000000
53 0.055399509801 0.868614277486 0.0140 0.00000000
54 0.111152000120 0.662823799066 0.0117 0.00000000
55 0.189370510351 0.224735093652 0.0122 0.00000000
56 0.055747374302 1.251794009240 0.0128 0.00000000
57 0.380793672493 0.352968451212 0.0130 0.00000000
58 0.179342220561 1.076586119374 0.0112 0.00000000
59 0.219844755898 0.697961902372 0.0116 0.00000000
60 0.289132426118 1.331525922124 0.0134 0.00000000
61 0.369708596435 1.160329551218 0.0102 0.00000000
62 0.175042017950 0.734212527326 0.0110 0.00000000
63 0.286624281080 0.929831797886 0.0102 0.00000000
64 0.258362486071 0.453775493889 0.0115 0.00000000
65 0.100480392484 0.457077926614 0.0145 0.00000000
66 0.071795852397 0.623494931114 0.0148 0.00000000
67 0.324435390877 1.236314676524 0.0125 0.00000000
68 0.202458848150 0.946550045069 0.0126 0.00000000
69 0.044970305436 0.200911254682 0.0144 0.00000000
70 0.132933770842 0.059171868210 0.0119 82.42838468
71 0.366293533663 0.594154858038 0.0110 0.00000000
72 0.342186883622 0.813139137763 0.0109 0.00000000
73 0.330796279851 0.411239245005 0.0120 0.00000000
74 0.013120575687 0.997105434974 0.0122 0.00000000
18 0.343954865289 1.324980790883 0.0118 0.00000000
19 0.304127890370 0.183298025811 0.0121 0.00000000
20 0.053213708178 0.528286805138 0.0141 0.00000000
21 0.170900224720 1.244252306961 0.0134 0.00000000
22 0.159393315386 1.208609488652 0.0145 0.00000000
23 0.209874468902 0.913205446166 0.0140 0.00000000
24 0.357740921105 0.035456023467 0.0136 215.53809817
25 0.122149766562 0.212017309872 0.0105 0.00000000
26 0.201341086300 1.363728406775 0.0131 0.00000000
27 0.168769149677 0.940035987591 0.0124 0.00000000
28 0.256262681118 0.477383241172 0.0107 0.00000000
29 0.327046882627 0.111725325981 0.0125 197.66713591
30 0.251124129655 0.843850369750 0.0107 0.00000000
31 0.213087813258 1.107997035039 0.0134 0.00000000
32 0.066169646773 0.223256220082 0.0112 0.00000000
33 0.215777022468 0.013340035731 0.0133 0.00000000
34 0.079393874034 1.004799348315 0.0107 0.00000000
35 0.026018594472 0.680190620610 0.0127 0.00000000
36 0.101322400046 0.266355048797 0.0115 0.00000000
0 0.335752097190 0.013484484190 0.0134 8.12077357
1 0.367161506425 0.405458152240 0.0134 0.00000000
2 0.032751604385 0.094695210667 0.0102 6.45754721
3 0.282263503947 0.967369450110 0.0103 0.00000000
4 0.374968698510 0.294581487029 0.0127 0.00000000
5 0.350060842887 0.156716317590 0.0128 0.00000000
6 0.028216403765 0.810407792103 0.0148 0.00000000
7 0.049823729006 1.372356551362 0.0136 0.00000000
8 0.066286485747 0.493051199578 0.0122 0.00000000
9 0.245923849689 0.318451651335 0.0139 0.00000000
10 0.036143039351 0.011545893440 0.0115 40.67069905
11 0.374955265824 1.008646698054 0.0117 0.00000000
12 0.287148181071 0.425937496197 0.0133 0.00000000
13 0.027241533818 0.369710671278 0.0109 0.00000000
14 0.217028876432 0.820988534448 0.0116 0.00000000
15 0.257733937715 0.081020465609 0.0116 71.08317403
16 0.017188774669 0.160425382493 0.0146 0.00000000
17 0.191410818628 0.761972131144 0.0134 0.00000000
131 0.384859662609 1.131494754475 0.0115 0.00000000
132 0.336336080646 0.619883490623 0.0134 0.00000000
133 0.013616446105 1.138347982517 0.0104 0.00000000
134 0.294902451747 1.131381760134 0.0130 0.00000000
135 0.136915734689 0.924493384690 0.0135 0.00000000
136 0.167100451552 0.586771485434 0.0109 0.00000000
137 0.148289500213 0.641061459316 0.0139 0.00000000
138 0.198186725517 0.525509450831 0.0125 0.00000000
139 0.322403254444 0.957842049677 0.0120 0.00000000
140 0.360472334956 0.441614282148 0.0146 0.00000000
141 0.049033266188 0.031639292187 0.0123 24.44349576
142 0.200563275396 1.396715946327 0.0108 0.00000000
143 0.300160147148 1.299223486586 0.0121 0.00000000
144 0.221699368099 0.619597583495 0.0101 0.00000000
145 0.299952120632 1.162479735064 0.0138 0.00000000
146 0.163135792313 1.383704611218 0.0136 0.00000000
147 0.156675179815 1.269053066630 0.0121 0.00000000
148 0.321718291936 0.060103849631 0.0108 0.22793907
149 0.170183046558 0.178138303375 0.0145 0.00000000
112 0.160042379867 0.050399405664 0.0105 107.48490110
113 0.121245926071 1.312721503168 0.0117 0.00000000
114 0.158129113851 1.323189769663 0.0102 0.00000000
115 0.131467736937 0.165596320480 0.0149 0.00000000
116 0.179133359661 0.830391181008 0.0142 0.00000000
117 0.120984309498 0.808166420156 0.0149 0.00000000
118 0.180082756192 0.298450354676 0.0146 0.00000000
119 0.363328925739 1.227142017353 0.0109 0.00000000
120 0.242414043885 0.939652317411 0.0121 0.00000000
121 0.293482883390 0.350784247241 0.0145 0.00000000
122 0.060969078769 0.578128236294 0.0104 0.00000000
123 0.030649102624 1.247171724557 0.0126 0.00000000
124 0.065604289894 0.834034162592 0.0122 0.00000000
125 0.134483406375 0.762168106558 0.0135 0.00000000
126 0.125439031976 0.519800694398 0.0129 0.00000000
127 0.164421484527 0.374952395163 0.0147 0.00000000
128 0.142006705630 0.142542180738 0.0101 0.00000000
129 0.308128268825 0.233838296164 0.0112 0.00000000
130 0.098616009754 0.139671796383 0.0111 0.00000000
75 0.217469531378 0.125539588319 0.0150 0.00000000
76 0.337838491941 0.261273401143 0.0109 0.00000000
77 0.050811873141 1.057178500686 0.0139 0.00000000
78 0.360446012105 1.056158516511 0.0129 0.00000000
79 0.069076092127 1.357295727758 0.0101 0.00000000
80 0.099871598009 0.701148600305 0.0111 0.00000000
81 0.178793498423 0.059056239641 0.0102 79.48808115
82 0.318539130638 0.211416669698 0.0132 0.00000000
83 0.153348198339 0.499877834265 0.0112 0.00000000
84 0.019909769625 0.276069650791 0.0117 0.00000000
85 0.060770180373 0.787329761837 0.0137 0.00000000
86 0.296813010435 1.089634536979 0.0121 0.00000000
87 0.219238474441 0.457583003268 0.0122 0.00000000
88 0.267099627012 0.588102193922 0.0133 0.00000000
89 0.089141607941 0.297336843501 0.0149 0.00000000
90 0.180220136231 0.552600104637 0.0123 0.00000000
91 0.031524894339 0.600719827027 0.0132 0.00000000
92 0.257322299966 0.776727474015 0.0118 0.00000000
300 0.189516456812 0.971297595460 0.0148 0.00000000
301 0.356095374162 0.322888396983 0.0150 0.00000000
302 0.366880369111 0.786500106686 0.0100 0.00000000
303 0.196672742203 1.219691933371 0.0112 0.00000000
304 0.142042125457 0.335046926532 0.0101 0.00000000
305 0.062904592008 1.111938559290 0.0122 0.00000000
306 0.139168174303 0.591743546888 0.0124 0.00000000
307 0.175061396287 1.358761579134 0.0108 0.00000000
308 0.310479510802 1.036811025290 0.0115 0.00000000
309 0.020098359500 0.525452336077 0.0144 0.00000000
310 0.083326758375 0.762207259237 0.0126 0.00000000
311 0.381621936050 0.762792586715 0.0121 0.00000000
312 0.115979024942 1.171821058959 0.0150 0.00000000
313 0.230403922626 0.034631672402 0.0118 0.00000000
314 0.013380898917 0.055756729472 0.0134 0.00000000
315 0.082302233168 0.389805425284 0.0114 0.00000000
316 0.095018857879 0.978945110872 0.0120 0.00000000
317 0.087292220305 1.040918372413 0.0148 0.00000000
476 0.272676993524 1.242359223741 0.0121 0.00000000
477 0.203587492512 0.038689013115 0.0148 0.00000000
478 0.244284666172 0.055914543900 0.0133 0.00000000
479 0.038425634977 0.564622790399 0.0132 0.00000000
480 0.262669519847 0.010201603829 0.0102 4.62454994
481 0.149748672464 0.808022914050 0.0138 0.00000000
482 0.057474333585 0.909795544129 0.0123 0.00000000
483 0.052245908283 0.658417533188 0.0148 0.00000000
484 0.245662731016 0.809278382897 0.0149 0.00000000
485 0.273739356579 1.287879227891 0.0103 0.00000000
486 0.203216771004 0.377036140843 0.0120 0.00000000
108 0.111723356267 1.339293334825 0.0146 0.00000000
571 0.386900182345 0.431225619202 0.0125 0.00000000
109 0.241463881629 1.135683444556 0.0106 0.00000000
110 0.230087531985 0.251398271003 0.0132 0.00000000
572 0.346204519400 0.056753329247 0.0102 0.00000000
452 0.226289989693 0.845663069766 0.0126 0.00000000
111 0.123580705695 1.046692669420 0.0124 0.00000000
573 0.253695466701 0.960186631420 0.0107 0.00000000
453 0.094030475795 0.358949984749 0.0109 0.00000000
574 0.136660169271 0.361204229649 0.0102 0.00000000
454 0.309310413861 1.064849084813 0.0142 0.00000000
575 0.388512453885 0.488496740124 0.0111 0.00000000
512 0.021571130988 1.109135592163 0.0124 0.00000000
455 0.214932117347 0.080653013167 0.0111 10.86018527
576 0.121459363154 0.277686194303 0.0104 0.00000000
456 0.015215446425 0.467853445047 0.0102 0.00000000
577 0.359358605574 0.267545490426 0.0110 0.00000000
426 0.388359886810 0.981502373792 0.0104 0.00000000
457 0.185696469875 1.005963065692 0.0103 0.00000000
513 0.313964172212 0.276522044011 0.0117 0.00000000
578 0.308140843067 0.014267485812 0.0142 3.76165921
579 0.342960333782 1.006150352567 0.0131 0.00000000
458 0.237690628281 0.156862018361 0.0149 0.00000000
514 0.248461805362 1.155959286759 0.0100 0.00000000
319 0.013652619652 1.051193273236 0.0127 0.00000000
427 0.066915821498 0.692912468769 0.0118 0.00000000
459 0.319999035328 0.929164145441 0.0102 0.00000000
460 0.386643702039 1.033686391538 0.0125 0.00000000
461 0.338906752453 0.180382447171 0.0126 0.00000000
462 0.318125817925 0.841821558284 0.0117 0.00000000
463 0.196777864304 0.146263263996 0.0142 0.00000000
464 0.010832024570 1.025597640789 0.0103 0.00000000
465 0.076802671042 0.893070417238 0.0125 0.00000000
466 0.380264097163 0.902587301496 0.0105 0.00000000
515 0.154194218839 0.071317763209 0.0112 6.78866069
467 0.065299956896 1.230514326182 0.0103 0.00000000
320 0.383666866772 0.194996213156 0.0118 0.00000000
516 0.120279790532 0.731176707203 0.0129 0.00000000
517 0.311090381631 0.608013576276 0.0114 0.00000000
321 0.158410083652 0.093370690397 0.0112 0.00000000
518 0.339522946270 0.591542727789 0.0128 0.00000000
519 0.039415626149 1.398471125665 0.0107 0.00000000
322 0.237424287739 1.255237373837 0.0142 0.00000000
520 0.061155341614 0.011326745940 0.0113 32.91194652
521 0.084327293732 0.089834183122 0.0112 75.12995675
323 0.243583049860 0.224344554078 0.0132 0.00000000
522 0.386897859510 1.328909408161 0.0128 0.00000000
324 0.014246983784 0.492267158268 0.0105 0.00000000
523 0.083964480349 0.240818328365 0.0118 0.00000000
580 0.030979676443 0.073625096087 0.0110 30.80613645
524 0.039873119598 0.053323098788 0.0112 15.81040268
325 0.124042646316 0.400444616421 0.0116 0.00000000
428 0.045403204424 0.259043497591 0.0133 0.00000000
326 0.060549740180 0.286021583649 0.0132 0.00000000
327 0.036338263901 0.981599932966 0.0121 0.00000000
429 0.334446886991 0.741986599476 0.0141 0.00000000
328 0.118525245833 0.027140183411 0.0110 92.66082077
430 0.073257248590 0.468355684690 0.0113 0.00000000
329 0.329303262252 0.985135184964 0.0112 0.00000000
330 0.066464153813 0.977777448003 0.0122 0.00000000
331 0.268378205298 0.882366663379 0.0127 0.00000000
332 0.387648130491 0.162290850215 0.0111 0.00000000
333 0.160913877046 0.153958676070 0.0111 0.00000000
334 0.138369154869 0.264086240112 0.0101 0.00000000
335 0.231905653976 0.497669581557 0.0147 0.00000000
336 0.285852402875 0.701148852947 0.0135 0.00000000
602

-2 0.0 0.0 0.00000001 0.0 0.0
-1 0.400000 1.500000 0.00000001 0.0 0.0
393 0.386166735878 0.924129844384 0.0127 0.00000000
543 0.206351077734 0.526646984898 0.0112 0.00000000
187 0.369411633824 1.170146613689 0.0129 0.00000000
93 0.052009789654 1.152743749371 0.0103 0.00000000
394 0.013923047377 1.255330711628 0.0110 0.00000000
544 0.223523744901 0.935589142993 0.0112 0.00000000
188 0.368114594205 0.209988141655 0.0120 0.00000000
395 0.190936050146 0.300413241039 0.0123 0.00000000
94 0.236580838081 0.718461331730 0.0142 0.00000000
545 0.089985555063 1.373445781464 0.0104 0.00000000
189 0.231917637423 1.163101166639 0.0113 0.00000000
396 0.171951697803 0.108599377344 0.0133 0.51313430
95 0.377345532716 1.279669398231 0.0122 0.00000000
546 0.316736110884 1.296123389732 0.0138 0.00000000
190 0.223236452856 1.195665469611 0.0148 0.00000000
397 0.259309088117 0.675905112819 0.0118 0.00000000
547 0.281845474523 1.035027793205 0.0118 0.00000000
96 0.268968272928 0.472219131697 0.0116 0.00000000
398 0.350308861504 1.256036741885 0.0136 0.00000000
191 0.062035147979 0.050759242687 0.0124 0.00000000
548 0.348402945162 0.744022177850 0.0107 0.00000000
487 0.093961381641 0.031409693927 0.0118 0.00000000
97 0.176958971134 0.378259876977 0.0132 0.00000000
337 0.178623427447 1.159757573422 0.0146 0.00000000
192 0.086180440384 1.294519209058 0.0150 0.00000000
549 0.170968277813 0.245361208011 0.0102 0.00000000
399 0.020593719275 1.343440747962 0.0135 0.00000000
98 0.056018373124 0.411408196388 0.0147 0.00000000
488 0.231003665206 1.313373408684 0.0141 0.00000000
338 0.236096688818 0.263482878029 0.0139 0.00000000
99 0.153158541524 0.653298094588 0.0143 0.00000000
550 0.261918393764 0.400785112164 0.0112 0.00000000
193 0.236192191603 0.892171218617 0.0115 0.00000000
400 0.084734707748 1.093900972439 0.0103 0.00000000
339 0.064281915667 0.912508792091 0.0120 0.00000000
489 0.275691281719 0.924238380963 0.0101 0.00000000
100 0.385414174398 0.090447068550 0.0146 0.00000000
194 0.242686498585 0.609444117582 0.0137 0.00000000
401 0.059143104490 0.294720161445 0.0107 0.00000000
551 0.137213419547 0.037412304055 0.0130 36.11240619
490 0.337991790988 0.258852076161 0.0102 0.00000000
101 0.178928658921 1.123032201438 0.0148 0.00000000
340 0.357603635657 1.081548807264 0.0109 0.00000000
402 0.295028935617 0.970374737082 0.0124 0.00000000
195 0.386220473401 1.034540928711 0.0106 0.00000000
552 0.378451980602 0.140483192461 0.0106 0.00000000
102 0.352553145011 0.101589492264 0.0147 2.09551055
491 0.240835146471 0.011740025764 0.0117 53.29681730
341 0.041611331692 0.608325505555 0.0124 0.00000000
403 0.226658267290 0.096627655292 0.0107 0.00000000
103 0.131917175977 1.262054667737 0.0115 0.00000000
196 0.271929600532 1.156288944078 0.0137 0.00000000
553 0.246782684326 0.643960903775 0.0110 0.00000000
342 0.014440089225 0.604968411286 0.0135 0.00000000
492 0.219370767385 0.060538410738 0.0107 31.01352815
104 0.119175974679 0.349804538949 0.0105 0.00000000
554 0.308404307500 1.085409251513 0.0104 0.00000000
197 0.037136942674 0.923416082603 0.0144 0.00000000
105 0.375337153868 0.707048958851 0.0112 0.00000000
404 0.049554870420 0.369439307375 0.0109 0.00000000
493 0.013378821615 0.306628595367 0.0107 0.00000000
343 0.283900226379 0.818073139477 0.0145 0.00000000
106 0.060698880826 0.710301277079 0.0110 0.00000000
555 0.187113155226 0.779625667845 0.0118 0.00000000
405 0.074643623207 1.357801683093 0.0115 0.00000000
198 0.360099477670 0.483261182777 0.0106 0.00000000
344 0.265662762381 0.313094138961 0.0119 0.00000000
107 0.265056802689 0.224870892037 0.0143 0.00000000
494 0.118034870404 0.407860783681 0.0103 0.00000000
556 0.283513267317 1.239384570736 0.0104 0.00000000
406 0.048472766852 0.441031150915 0.0114 0.00000000
108 0.111723356267 1.315690277872 0.0146 0.00000000
199 0.269843335997 0.650972686259 0.0125 0.00000000
345 0.311857695846 0.747693280313 0.0143 0.00000000
495 0.137103733489 0.934494341800 0.0101 0.00000000
109 0.241463881629 1.112080387603 0.0106 0.00000000
557 0.079417489819 0.112960238525 0.0132 4.19048538
407 0.296836935660 0.066186032704 0.0117 1.90339758
200 0.047552189891 1.005037729353 0.0118 0.00000000
496 0.388522227828 0.439044876314 0.0113 0.00000000
110 0.230087531985 0.227795215394 0.0132 0.00000000
558 0.225785651742 1.359862844526 0.0117 0.00000000
408 0.283572485248 0.010656389688 0.0107 123.02200525
346 0.332700775776 1.075152604327 0.0101 0.00000000
111 0.123580705695 1.023089612467 0.0124 0.00000000
497 0.372783078802 1.358440626923 0.0114 0.00000000
201 0.302403425139 0.610610927655 0.0104 0.00000000
559 0.338575330520 1.233760485284 0.0101 0.00000000
409 0.037157321950 1.259705796997 0.0110 0.00000000
75 0.217008736871 0.121703941664 0.0150 0.00000000
347 0.040857340654 0.319616715008 0.0132 0.00000000
498 0.331715183694 0.039018786826 0.0125 52.46315822
202 0.239460461892 0.386352762499 0.0112 0.00000000
560 0.326442064535 0.463280912096 0.0100 0.00000000
410 0.310338490129 1.189337948814 0.0125 0.00000000
76 0.337838491941 0.237670345510 0.0109 0.00000000
348 0.101428166809 0.993902765098 0.0112 0.00000000
499 0.189732675717 0.012787721871 0.0128 29.36113188
561 0.287922071395 0.585758090687 0.0108 0.00000000
203 0.122807750825 1.073079924637 0.0137 0.00000000
77 0.050811873141 1.033575443734 0.0139 0.00000000
411 0.199649402761 1.234681494457 0.0128 0.00000000
349 0.032122399061 1.059076580872 0.0115 0.00000000
500 0.114287258398 0.070422381353 0.0102 55.07754382
78 0.360446012105 1.032555459558 0.0129 0.00000000
525 0.320988700607 0.516588775926 0.0112 0.00000000
204 0.364074864318 0.940449359304 0.0112 0.00000000
375 0.090669540518 1.197595182433 0.0108 0.00000000
79 0.069076092127 1.333692670805 0.0101 0.00000000
350 0.238963062204 0.690755453588 0.0133 0.00000000
501 0.213019506099 0.727572985273 0.0101 0.00000000
526 0.152026262842 0.453704043985 0.0108 0.00000000
80 0.099871598009 0.677545545972 0.0111 0.00000000
205 0.359132641795 1.336788814462 0.0117 0.00000000
376 0.044519430343 0.128236634505 0.0102 21.55545212
351 0.340188292705 0.447240310610 0.0111 0.00000000
502 0.047717920329 0.151529720266 0.0133 39.81556671
503 0.266029020312 0.887359406648 0.0100 0.00000000
504 0.202919148022 0.157151312790 0.0110 0.00000000
505 0.262530300813 1.313016555392 0.0101 0.00000000
506 0.072529077767 1.247355270755 0.0103 0.00000000
507 0.340311790468 0.078037962610 0.0118 8.50492461
508 0.363107854532 0.078396386643 0.0107 0.00000000
509 0.015732153619 0.422404563785 0.0108 0.00000000
581 0.257289163423 0.995249310976 0.0107 0.00000000
510 0.165029326934 0.305010964457 0.0119 0.00000000
511 0.075324993355 1.149819166848 0.0104 0.00000000
318 0.027467552799 0.850858258892 0.0111 0.00000000
512 0.021571130988 1.085532535210 0.0124 0.00000000
513 0.313964172212 0.252918988369 0.0117 0.00000000
527 0.327803827342 1.271607457782 0.0118 0.00000000
582 0.266057315404 0.598103683566 0.0111 0.00000000
319 0.013652619652 1.027590216283 0.0127 0.00000000
514 0.248461805362 1.132356229806 0.0100 0.00000000
81 0.176972128604 0.056425375565 0.0102 0.00000000
320 0.381830773998 0.181223353294 0.0118 0.00000000
515 0.157808154687 0.065937241175 0.0112 24.84575203
583 0.361465279620 1.107341587491 0.0105 0.00000000
528 0.122409687833 1.048141161967 0.0100 0.00000000
516 0.120279790532 0.707573652870 0.0129 0.00000000
82 0.318539130638 0.187813614246 0.0132 0.00000000
584 0.256827608098 0.129377194973 0.0123 0.00000000
529 0.101426942010 0.010405481216 0.0104 42.54233173
206 0.278657412378 0.114953372838 0.0135 0.00000000
321 0.153977059942 0.088027696772 0.0112 13.48448083
83 0.153348198339 0.476274779855 0.0112 0.00000000
517 0.311090381631 0.584410521943 0.0114 0.00000000
530 0.081447877530 0.399830753478 0.0117 0.00000000
585 0.314709482763 0.082539341913 0.0126 0.00000000
377 0.212603534558 0.768627153645 0.0146 0.00000000
207 0.017156374875 0.696749136743 0.0101 0.00000000
518 0.339522946270 0.567939673456 0.0128 0.00000000
84 0.019909769625 0.252466595148 0.0117 0.00000000
322 0.237424287739 1.231634316884 0.0142 0.00000000
586 0.149396019528 0.378512413153 0.0126 0.00000000
531 0.298996897478 1.216821041867 0.0113 0.00000000
378 0.091683763343 0.704618709677 0.0144 0.00000000
